ply
format ascii 1.0
element vertex 90
property float x
property float y
property float z
property uchar red
property uchar green
property uchar blue
end_header
-0.0564255788922309875 0.00931987352669239044 0.307798475027084351 0 0 0
-0.0559206381440162659 0.00809777434915304184 0.308908194303512573 0 0 0
-0.0552293844521045685 -0.0085739772766828537 0.307838290929794312 0 0 0
-0.05491647869348526 -0.038075864315032959 0.307510197162628174 0 0 0
-0.0552522949874401093 -0.00760374870151281357 0.309060126543045044 0 0 0
-0.0550534613430500031 -0.00547376368194818497 0.308706521987915039 0 0 0
-0.0543980710208415985 -0.0499188415706157684 0.308028906583786011 0 0 0
-0.0546865873038768768 0.00632585445418953896 0.309768110513687134 0 0 0
-0.0534036047756671906 -0.00663809711113572121 0.30718567967414856 0 0 0
-0.0535197481513023376 0.00840210448950529099 0.309149652719497681 0 0 0
-0.0533073022961616516 0.0094492640346288681 0.310105264186859131 0 0 0
-0.0533073022961616516 0.0094492640346288681 0.310105264186859131 0 0 0
-0.0530920028686523438 0.000937545206397771835 0.309610545635223389 0 0 0
-0.0524865314364433289 0.0070174606516957283 0.307910621166229248 0 0 0
-0.0524446964263916016 -0.00135819870047271252 0.309407204389572144 0 0 0
-0.026938239112496376 -0.00878114812076091766 0.312472641468048096 0 0 0
-0.026938239112496376 -0.00878114812076091766 0.312472641468048096 0 0 0
-0.0257006939500570297 -0.0475692525506019592 0.312790215015411377 0 0 0
-0.0257006939500570297 -0.0475692525506019592 0.312790215015411377 0 0 0
-0.0257165580987930298 -0.0405694209039211273 0.312727808952331543 0 0 0
-0.0257165580987930298 -0.0405694209039211273 0.312727808952331543 0 0 0
-0.0249168146401643753 -0.0852080434560775757 0.312749087810516357 0 0 0
-0.022878739982843399 -0.0442144684493541718 0.313352823257446289 0 0 0
-0.022878739982843399 -0.0442144684493541718 0.313352823257446289 0 0 0
-0.0222929641604423523 -0.0389689840376377106 0.312786996364593506 0 0 0
-0.0222929641604423523 -0.0389689840376377106 0.312786996364593506 0 0 0
-0.0221094973385334015 -0.0512443594634532928 0.313021153211593628 0 0 0
-0.0218498818576335907 -0.0844521820545196533 0.312820404767990112 0 0 0
-0.0201592463999986649 0.0051713036373257637 0.316467374563217163 0 0 0
-0.0201592463999986649 0.0051713036373257637 0.316467374563217163 0 0 0
-0.0189979691058397293 -0.095874980092048645 0.31467825174331665 0 0 0
-0.0189979691058397293 -0.095874980092048645 0.31467825174331665 0 0 0
-0.0185773707926273346 -0.0400482341647148132 0.31222081184387207 0 0 0
-0.0185773707926273346 -0.0400482341647148132 0.31222081184387207 0 0 0
-0.0185613799840211868 -0.0472299493849277496 0.313047349452972412 0 0 0
-0.0185613799840211868 -0.0472299493849277496 0.313047349452972412 0 0 0
-0.018323458731174469 -0.0475786179304122925 0.313316583633422852 0 0 0
-0.018323458731174469 -0.0475786179304122925 0.313316583633422852 0 0 0
-0.0182362757623195648 -0.0208136364817619324 0.335298150777816772 0 0 0
-0.0166834276169538498 -0.0821453854441642761 0.314053535461425781 0 0 0
-0.0167307686060667038 -0.0384533368051052094 0.313732355833053589 0 0 0
-0.0162174291908740997 -0.0722990110516548157 0.312595456838607788 0 0 0
-0.0150705575942993164 -0.0749477967619895935 0.315806657075881958 0 0 0
-0.014050493948161602 -0.0505566410720348358 0.313726603984832764 0 0 0
-0.0143372146412730217 0.00352016580291092396 0.317452132701873779 0 0 0
-0.0143372146412730217 0.00352016580291092396 0.317452132701873779 0 0 0
-0.0138289453461766243 -0.058490067720413208 0.315296024084091187 0 0 0
-0.0136690717190504074 -0.00399509444832801819 0.314706206321716309 0 0 0
-0.00992992240935564041 -0.0481311380863189697 0.315322965383529663 0 0 0
-0.00829632673412561417 -0.00689963111653923988 0.316505759954452515 0 0 0
-0.00664508342742919922 -0.0716813579201698303 0.31560167670249939 0 0 0
-0.00504969526082277298 -0.101273715496063232 0.316091835498809814 0 0 0
-0.00504969526082277298 -0.101273715496063232 0.316091835498809814 0 0 0
-0.00474300887435674667 -0.00612493604421615601 0.316533088684082031 0 0 0
0.137694686651229858 -0.101038359105587006 0.325391590595245361 0 0 0
0.137694686651229858 -0.101038359105587006 0.325391590595245361 0 0 0
0.137555107474327087 -0.0978187322616577148 0.324937641620635986 0 0 0
0.138886615633964539 -0.096175849437713623 0.326743423938751221 0 0 0
0.14017389714717865 -0.0998959764838218689 0.325265467166900635 0 0 0
0.140216752886772156 -0.0984684452414512634 0.325215727090835571 0 0 0
0.140216752886772156 -0.0984684452414512634 0.325215727090835571 0 0 0
0.140101522207260132 -0.103582620620727539 0.32453685998916626 0 0 0
0.149230793118476868 -0.0574818141758441925 0.323428362607955933 0 0 0
0.149230793118476868 -0.0574818141758441925 0.323428362607955933 0 0 0
0.156725600361824036 -0.0513122193515300751 0.325446546077728271 0 0 0
0.156725600361824036 -0.0513122193515300751 0.325446546077728271 0 0 0
0.156535789370536804 0.00317632104270160198 0.325104981660842896 0 0 0
0.156978949904441833 -0.0627424344420433044 0.324088335037231445 0 0 0
0.156978949904441833 -0.0627424344420433044 0.324088335037231445 0 0 0
0.158132046461105347 -0.0573035106062889099 0.326062649488449097 0 0 0
0.157473504543304443 -0.0604590848088264465 0.324025422334671021 0 0 0
0.158052653074264526 0.00509130675345659256 0.325298458337783813 0 0 0
0.158673837780952454 -0.0546467415988445282 0.323888897895812988 0 0 0
0.159277141094207764 -0.0628436058759689331 0.324112355709075928 0 0 0
0.160166338086128235 -0.0506031997501850128 0.325235247611999512 0 0 0
0.160028561949729919 0.00157456169836223125 0.324885427951812744 0 0 0
0.163162678480148315 -0.0615633800625801086 0.325709521770477295 0 0 0
0.164826065301895142 0.00303897983394563198 0.323890984058380127 0 0 0
0.169823586940765381 -0.0661623775959014893 0.324464708566665649 0 0 0
0.169990807771682739 -0.0681188777089118958 0.322535693645477295 0 0 0
0.172790795564651489 0.00327126192860305309 0.322817891836166382 0 0 0
0.177726000547409058 -0.0527294985949993134 0.323682487010955811 0 0 0
0.179379373788833618 -0.0661877170205116272 0.323335587978363037 0 0 0
0.179379373788833618 -0.0661877170205116272 0.323335587978363037 0 0 0
0.179742425680160522 -0.046122528612613678 0.323460042476654053 0 0 0
0.185977250337600708 -0.0643043369054794312 0.326739966869354248 0 0 0
0.185977250337600708 -0.0643043369054794312 0.326739966869354248 0 0 0
0.188358277082443237 -0.0655604526400566101 0.325362980365753174 0 0 0
0.188358277082443237 -0.0655604526400566101 0.325362980365753174 0 0 0
0.191324859857559204 -0.0663198307156562805 0.325954586267471313 0 0 0
